ply 
format ascii 1.0
element vertex 691
property float x 
property float y 
property float z 
property uchar red 
property uchar green 
property uchar blue 
end_header 
-2.647139355088874 0.29814312748601507 15.375282275758009 171 162 69
-2.6280291073224213 0.2981431274860152 15.375282275758016 172 162 73
-2.6446574740704336 0.3022272799173304 15.585902580905385 173 165 79
-2.625285442088001 0.3022272799173305 15.585902580905394 174 166 83
-4.508010010220488 0.3260659690094818 15.80237345008463 114 114 83
-4.488368922238303 0.32606596900948187 15.802373450084632 121 119 89
-4.407512384471785 0.3215993118997631 15.585902580905397 136 132 99
-4.388140352489348 0.32159931189976265 15.585902580905383 155 151 111
1.1390003121321606 -0.08384553488815244 -4.063467458593191 161 155 106
0.776298115066718 -0.05740036618259829 -2.781835912973334 158 152 94
0.7728405152263323 -0.05740036618259826 -2.7818359129733334 160 152 88
0.7474527610281528 -0.05576425123202537 -2.7025436779242122 157 147 82
0.744093715102458 -0.0557642512320254 -2.7025436779242127 157 147 81
0.8543816321189515 -0.0643198623799526 -3.117180516181079 159 148 81
0.8278270330365325 -0.0626046660498205 -3.0340557024162496 161 148 79
0.826259302283375 -0.06277205820503395 -3.042168150818433 161 147 77
0.822478130265413 -0.06277205820503391 -3.04216815081843 161 146 73
0.8186969582474517 -0.06277205820503393 -3.042168150818431 161 145 70
0.81491578622949 -0.06277205820503391 -3.0421681508184317 161 145 68
-3.0955545481133866 0.2395586711090071 11.609907024551976 160 143 66
-2.7202719583819293 0.21150225016831248 10.250188183838675 157 140 63
-3.0983095777904817 0.24202834813074947 11.729596787691689 153 136 58
-2.0487799363764325 0.16079965594988144 7.792951290452694 150 134 55
-2.0252225331717115 0.15970578073933805 7.739938016367983 148 133 51
-3.485806518135574 0.27619705610214923 13.38553986360109 145 130 47
-3.469169361256544 0.2761970561021492 13.385539863601096 140 125 41
-3.4525322043775164 0.27619705610214934 13.385539863601101 133 119 33
-3.3959427795043147 0.2729854624265428 13.229894051233636 125 114 29
-3.379499077937834 0.272985462426543 13.22989405123365 126 123 39
-3.363055376371349 0.2729854624265428 13.22989405123364 150 153 70
-3.346611674804867 0.2729854624265428 13.229894051233645 167 178 95
-3.3301679732383853 0.27298546242654304 13.229894051233652 170 190 108
-3.3137242716719024 0.272985462426543 13.229894051233652 169 196 115
-3.297280570105418 0.27298546242654304 13.229894051233648 159 191 110
-3.280836868538934 0.2729854624265429 13.229894051233648 147 183 102
-3.2643931669724537 0.27298546242654315 13.229894051233655 144 182 101
-3.247949465405967 0.27298546242654287 13.229894051233645 148 188 103
-3.231505763839484 0.27298546242654287 13.229894051233643 151 191 104
-3.2150620622730015 0.2729854624265429 13.229894051233648 147 189 100
-3.161852632422534 0.2698476984906056 13.077826303518314 138 181 92
-3.1821746591400344 0.272985462426543 13.229894051233648 140 182 94
-3.16573095757355 0.27298546242654276 13.229894051233641 151 191 106
-3.149287256007067 0.27298546242654287 13.229894051233645 156 193 112
-3.132843554440583 0.2729854624265428 13.22989405123364 165 197 121
-3.153063380554971 0.27619705610214934 13.385539863601098 184 208 134
-3.136426223675943 0.27619705610214934 13.385539863601101 191 204 134
-3.11978906679691 0.2761970561021492 13.385539863601094 181 180 116
-3.140094194559762 0.2794851162938415 13.544891528643968 171 153 97
-3.1232589762893155 0.27948511629384165 13.544891528643973 180 147 102
-3.106423758018868 0.27948511629384165 13.544891528643973 187 140 110
-3.0895885397484193 0.2794851162938415 13.54489152864397 182 128 107
-3.0366032824017615 0.27619705610214934 13.385539863601101 161 103 91
-3.0199661255227315 0.27619705610214934 13.3855398636011 150 93 83
-3.0033289686437006 0.27619705610214923 13.385539863601101 135 78 71
-2.9866918117646715 0.27619705610214934 13.385539863601101 117 62 59
-2.9355191356427834 0.27298546242654287 13.229894051233641 108 56 54
-2.9190754340763014 0.272985462426543 13.22989405123365 118 68 67
-2.902631732509819 0.2729854624265429 13.229894051233652 139 91 88
-2.886188030943334 0.27298546242654287 13.229894051233645 168 122 115
-2.8697443293768514 0.272985462426543 13.229894051233648 196 149 137
-2.853300627810367 0.2729854624265429 13.229894051233645 216 170 152
-2.8368569262438843 0.27298546242654287 13.229894051233646 218 181 152
-2.820413224677402 0.272985462426543 13.229894051233648 211 187 146
-2.803969523110918 0.2729854624265429 13.229894051233648 203 193 141
-2.787525821544435 0.272985462426543 13.229894051233646 189 195 134
-2.7710821199779523 0.272985462426543 13.22989405123365 174 191 121
-2.7870459292163106 0.27619705610214934 13.385539863601107 166 194 117
-2.7704087723372783 0.27619705610214934 13.385539863601098 169 200 119
-2.7537716154582474 0.2761970561021493 13.385539863601096 172 201 120
-2.769719392609924 0.2794851162938415 13.544891528643973 176 201 123
-2.7528841743394765 0.2794851162938416 13.544891528643971 178 201 126
-2.736048956069028 0.27948511629384154 13.544891528643971 180 202 129
-2.719213737798582 0.27948511629384165 13.544891528643973 175 197 126
-2.7023785195281333 0.2794851162938415 13.544891528643966 173 195 124
-2.6855433012576864 0.2794851162938415 13.544891528643968 169 188 116
-2.6687080829872394 0.27948511629384154 13.54489152864397 165 181 109
-2.6518728647167933 0.2794851162938416 13.544891528643973 159 168 96
-2.6350376464463445 0.2794851162938415 13.544891528643968 137 140 67
-2.618202428175898 0.2794851162938415 13.544891528643971 124 124 48
-2.60136720990545 0.2794851162938416 13.544891528643971 126 123 44
-2.5845319916350054 0.2794851162938418 13.544891528643978 131 127 45
-2.5676967733645553 0.2794851162938415 13.544891528643968 134 129 45
-2.55086155509411 0.27948511629384176 13.544891528643973 137 129 45
-2.876462328286317 0.31725337525246855 15.37528227575801 141 130 47
-2.857352080519865 0.3172533752524687 15.375282275758018 144 132 49
-2.838241832753411 0.31725337525246855 15.37528227575802 146 133 51
-2.819131584986958 0.3172533752524687 15.37528227575802 149 136 53
-2.8000213372205045 0.3172533752524687 15.375282275758014 150 138 54
-2.78091108945405 0.3172533752524687 15.375282275758021 152 140 53
-2.7618008416875965 0.31725337525246877 15.37528227575802 153 144 50
-2.7802616979474615 0.321599311899763 15.585902580905394 156 147 48
-2.723580346154693 0.31725337525246905 15.375282275758028 157 150 46
-2.7415176339825944 0.3215993118997627 15.58590258090538 161 153 48
-2.6853598506217833 0.31725337525246877 15.375282275758021 165 156 51
-2.6662496028553306 0.3172533752524689 15.375282275758025 167 158 57
-2.647139355088875 0.31725337525246877 15.375282275758018 169 160 65
-2.6280291073224205 0.31725337525246877 15.37528227575801 170 163 72
-2.644657474070433 0.3215993118997628 15.585902580905389 173 165 79
-2.6252854420880016 0.32159931189976293 15.58590258090539 174 166 81
-4.508010010220491 0.3457070569916703 15.802373450084632 116 115 83
-4.426884416454215 0.34097134388219524 15.585902580905394 124 121 89
1.1491014430944293 -0.08889610036928663 -4.063467458593191 140 136 98
1.144050877613295 -0.08889610036928668 -4.063467458593191 155 150 105
1.139000312132161 -0.08889610036928663 -4.063467458593192 156 148 96
0.7744047050299692 -0.06070953195951282 -2.7750509473319354 154 146 85
0.7709555383599266 -0.060709531959512834 -2.7750509473319367 155 146 81
0.8889198090193565 -0.07031329972711936 -3.214042057644331 152 143 79
0.8606138847750957 -0.06838161566868203 -3.1257441989178387 152 141 78
0.8293864247963222 -0.066199223679256 -3.0259864053353547 154 144 80
0.8278270330365324 -0.0663757549424007 -3.03405570241625 158 145 81
0.8240559441439523 -0.06637575494240065 -3.0340557024162482 158 143 79
0.8224781302654128 -0.06655323022299535 -3.0421681508184313 157 142 75
0.8186969582474516 -0.06655323022299538 -3.0421681508184326 159 143 75
-3.109984735202341 0.25398885819796174 11.609907024551976 160 142 72
-3.0955545481133857 0.25398885819796185 11.60990702455198 157 139 67
0.7258417965874863 -0.05983391371009679 -2.73502617405311 154 136 62
-1.9903048281170648 0.16484045101589578 7.53490654573572 150 133 57
-2.007529333630598 0.16705307451946483 7.6360462309133785 146 129 52
-3.502443675014608 0.2928342129811795 13.385539863601105 143 127 48
-3.485806518135575 0.29283421298117934 13.385539863601096 133 118 38
-3.4288301826372836 0.28942916399302615 13.229894051233643 131 118 38
-3.4123864810708016 0.2894291639930263 13.229894051233648 131 118 38
-3.3959427795043178 0.28942916399302615 13.229894051233646 133 125 48
-3.3794990779378336 0.28942916399302615 13.229894051233645 148 149 78
-3.3630553763713493 0.28942916399302615 13.229894051233636 167 176 106
-3.346611674804868 0.2894291639930263 13.229894051233648 166 184 114
-3.3301679732383853 0.2894291639930263 13.229894051233646 156 182 108
-3.3137242716719024 0.28942916399302626 13.229894051233652 146 178 102
-3.2972805701054195 0.28942916399302643 13.229894051233654 146 183 105
-3.2808368685389326 0.28942916399302615 13.229894051233641 145 183 104
-3.2643931669724506 0.2894291639930262 13.22989405123365 142 181 101
-3.247949465405967 0.28942916399302604 13.229894051233643 144 183 102
-3.231505763839483 0.2894291639930261 13.229894051233645 146 185 104
-3.2150620622729993 0.2894291639930262 13.229894051233641 140 180 99
-3.1986183607065164 0.28942916399302615 13.229894051233641 128 171 89
-3.182174659140033 0.2894291639930261 13.229894051233641 132 175 94
-3.165730957573551 0.2894291639930262 13.229894051233643 151 192 113
-3.1492872560070673 0.28942916399302626 13.229894051233646 152 192 115
-3.169700537434003 0.2928342129811794 13.385539863601098 154 192 115
-3.1530633805549724 0.29283421298117945 13.385539863601101 156 191 114
-3.1364262236759415 0.29283421298117945 13.3855398636011 165 197 119
-3.1197890667969133 0.2928342129811796 13.385539863601103 176 202 129
-3.1400941945597616 0.2963203345642887 13.544891528643971 166 183 123
-3.1232589762893146 0.29632033456428875 13.544891528643971 159 169 119
-3.1064237580188676 0.29632033456428875 13.544891528643971 160 162 120
-3.0895885397484197 0.2963203345642887 13.544891528643973 181 173 140
-3.03660328240176 0.2928342129811794 13.385539863601094 197 178 154
-3.019966125522731 0.2928342129811795 13.3855398636011 206 176 160
-3.0033289686437006 0.2928342129811794 13.385539863601098 197 156 149
-2.9866918117646706 0.29283421298117945 13.3855398636011 172 126 125
-2.9355191356427848 0.28942916399302626 13.229894051233646 164 119 120
-2.9190754340763 0.2894291639930262 13.229894051233645 189 148 149
-2.9026317325098177 0.28942916399302626 13.229894051233648 214 180 179
-2.886188030943334 0.2894291639930262 13.229894051233641 223 198 190
-2.869744329376852 0.2894291639930263 13.229894051233648 220 200 186
-2.8205040688700183 0.2861023919931064 13.077826303518314 205 191 169
-2.8042493753675193 0.2861023919931065 13.077826303518325 181 178 142
-2.7879946818650176 0.28610239199310644 13.077826303518316 165 176 124
-2.803969523110918 0.28942916399302615 13.229894051233645 158 180 115
-2.787525821544435 0.2894291639930263 13.22989405123365 147 179 107
-2.77108211997795 0.28942916399302604 13.229894051233643 135 174 96
-2.754638418411467 0.2894291639930263 13.22989405123365 142 186 103
-2.738194716844986 0.28942916399302643 13.229894051233652 148 191 107
-2.7217510152785023 0.2894291639930264 13.229894051233648 152 191 108
-2.7371344585792174 0.2928342129811795 13.385539863601098 158 192 112
-2.7204973017001906 0.29283421298117973 13.385539863601108 159 190 114
-2.7360489560690286 0.2963203345642888 13.54489152864397 163 194 119
-2.719213737798581 0.2963203345642887 13.544891528643971 161 193 120
-2.7023785195281347 0.29632033456428875 13.544891528643973 162 194 122
-2.6855433012576864 0.29632033456428875 13.544891528643975 169 198 126
-2.6687080829872403 0.2963203345642888 13.544891528643971 177 202 129
-2.6518728647167933 0.2963203345642888 13.544891528643976 178 197 125
-2.6350376464463454 0.2963203345642887 13.54489152864397 163 176 102
-2.618202428175899 0.29632033456428875 13.544891528643973 137 143 68
-2.6013672099054506 0.29632033456428875 13.544891528643975 127 127 51
-2.584531991635003 0.29632033456428875 13.544891528643971 130 127 49
-2.5676967733645557 0.29632033456428863 13.544891528643962 134 129 49
-2.5508615550941087 0.2963203345642887 13.544891528643966 137 130 49
-2.8764623282863178 0.33636362301892236 15.375282275758014 141 131 50
-2.8964938898420542 0.3409713438821952 15.58590258090539 145 133 53
-2.877121857859623 0.3409713438821953 15.585902580905394 147 134 55
-2.8577498258771903 0.3409713438821954 15.585902580905396 148 135 55
-2.838377793894759 0.3409713438821954 15.585902580905394 149 137 54
-2.819005761912327 0.3409713438821954 15.585902580905397 150 140 52
-2.799633729929894 0.34097134388219535 15.585902580905394 152 143 50
-2.780261697947462 0.3409713438821954 15.585902580905397 154 146 47
-2.760889665965029 0.3409713438821953 15.585902580905397 156 149 47
-2.7044700983882346 0.33636362301892236 15.375282275758018 159 152 46
-2.685359850621782 0.33636362301892236 15.37528227575802 163 154 51
-2.6662496028553293 0.3363636230189224 15.375282275758021 164 156 55
-2.647139355088875 0.3363636230189223 15.375282275758018 166 160 65
-2.6280291073224222 0.33636362301892253 15.375282275758027 168 161 72
-2.6446574740704354 0.34097134388219547 15.585902580905397 171 163 77
-2.6252854420880007 0.34097134388219535 15.585902580905392 173 165 81
3.245767207358753 -0.2630506643811783 -11.377708884060938 118 114 83
3.2316256240115764 -0.26305066438117813 -11.377708884060933 128 123 89
3.2499838794589917 -0.2657077417991699 -11.492635236425185 143 138 97
3.2356994518355804 -0.2657077417991698 -11.492635236425183 153 145 97
0.7778538717000124 -0.06415869862955569 -2.7750509473319367 150 141 86
0.7744047050299697 -0.06415869862955566 -2.775050947331935 149 138 77
0.8406696029988557 -0.06996028308010058 -3.0259864053353547 149 138 74
0.8369085435980116 -0.06996028308010058 -3.0259864053353547 148 138 74
0.8331474841971667 -0.06996028308010056 -3.0259864053353542 146 137 74
0.829386424796322 -0.06996028308010058 -3.0259864053353547 149 138 76
0.8256253653954779 -0.06996028308010062 -3.025986405335356 153 141 79
0.8240559441439527 -0.07014684383498088 -3.034055702416249 154 139 78
0.8202848552513724 -0.07014684383498088 -3.0340557024162513 152 137 75
0.8576825276878064 -0.07368365949052609 -3.1870333008574043 152 136 72
0.748841533291964 -0.06463161287006837 -2.7955058683196405 153 136 69
1.0045177010434165 -0.08710286900039012 -3.7674532728678587 151 134 63
-1.9996701151019483 0.17420573800078018 7.5349065457357165 148 131 58
-1.9903048281170639 0.1742057380007803 7.534906545735717 143 127 52
-1.9941458047397274 0.17536710958745214 7.585139256040621 137 123 45
-3.4617175857702533 0.30587286555950965 13.229894051233652 127 114 35
-3.445273884203768 0.30587286555950954 13.229894051233641 127 115 36
-3.4288301826372845 0.3058728655595095 13.229894051233646 131 122 43
-3.4123864810708024 0.30587286555950965 13.22989405123365 134 126 46
-3.395942779504318 0.3058728655595095 13.229894051233646 141 137 62
-3.379499077937834 0.3058728655595095 13.229894051233646 151 160 92
-3.3630553763713507 0.30587286555950954 13.229894051233645 162 180 113
-3.3466116748048678 0.30587286555950943 13.229894051233648 160 183 117
-3.3301679732383835 0.3058728655595095 13.229894051233646 151 181 112
-3.3137242716719 0.3058728655595096 13.229894051233646 143 178 108
-3.297280570105418 0.30587286555950954 13.22989405123365 143 182 109
-3.280836868538933 0.3058728655595096 13.229894051233645 143 183 108
-3.2643931669724506 0.3058728655595096 13.229894051233645 144 184 107
-3.2479494654059655 0.3058728655595094 13.22989405123364 145 184 107
-3.2315057638394844 0.3058728655595095 13.229894051233645 140 179 101
-3.2150620622730006 0.30587286555950965 13.22989405123365 129 171 92
-3.198618360706517 0.3058728655595096 13.229894051233646 119 162 83
-3.1821746591400357 0.3058728655595097 13.22989405123365 119 163 84
-3.1657309575735515 0.3058728655595097 13.229894051233652 132 176 99
-3.1492872560070655 0.30587286555950943 13.229894051233638 140 184 107
-3.1697005374340037 0.30947136986020973 13.385539863601105 139 182 105
-3.1530633805549733 0.3094713698602097 13.385539863601098 134 177 98
-3.13642622367594 0.3094713698602095 13.385539863601098 123 166 87
-3.1197890667969124 0.3094713698602096 13.385539863601101 141 182 107
-3.103151909917883 0.30947136986020973 13.3855398636011 154 191 126
-3.1232589762893146 0.31315555283473595 13.54489152864397 166 198 139
-3.106423758018865 0.3131555528347358 13.544891528643964 159 185 133
-3.0895885397484197 0.313155552834736 13.544891528643968 150 169 122
-3.0366032824017593 0.3094713698602095 13.385539863601092 151 160 120
-3.019966125522732 0.3094713698602096 13.385539863601094 167 165 133
-3.003328968643702 0.3094713698602098 13.385539863601101 188 173 151
-2.951962837209267 0.3058728655595095 13.229894051233641 199 177 163
-2.9355191356427843 0.30587286555950954 13.229894051233645 209 186 178
-2.9190754340762997 0.30587286555950954 13.229894051233645 212 193 185
-2.9026317325098168 0.3058728655595095 13.229894051233645 206 194 183
-2.886188030943334 0.3058728655595096 13.229894051233641 191 187 169
-2.86974432937685 0.3058728655595095 13.229894051233645 178 179 155
-2.820504068870019 0.3023570854956072 13.077826303518318 163 169 138
-2.804249375367518 0.3023570854956073 13.077826303518313 144 159 116
-2.7879946818650145 0.3023570854956071 13.077826303518313 134 162 103
-2.7717399883625156 0.3023570854956071 13.077826303518313 134 172 103
-2.7554852948600153 0.30235708549560714 13.077826303518314 127 171 97
-2.7392306013575136 0.30235708549560714 13.077826303518314 126 173 93
-2.7546384184114685 0.30587286555950954 13.229894051233646 141 189 106
-2.738194716844985 0.30587286555950965 13.229894051233646 136 182 98
-2.7217510152785 0.30587286555950943 13.22989405123364 138 178 95
-2.705307313712019 0.3058728655595096 13.229894051233646 146 183 103
-2.688863612145535 0.30587286555950965 13.22989405123365 150 186 108
-2.7038601448211574 0.30947136986020973 13.385539863601103 153 189 113
-2.687222987942128 0.30947136986020973 13.3855398636011 153 192 117
-2.6705858310630974 0.30947136986020973 13.385539863601103 153 193 119
-2.6855433012576864 0.31315555283473584 13.544891528643968 154 191 118
-2.6687080829872403 0.313155552834736 13.544891528643975 160 193 120
-2.6518728647167924 0.31315555283473595 13.54489152864397 166 195 122
-2.635037646446346 0.313155552834736 13.54489152864397 169 191 117
-2.6182024281758967 0.313155552834736 13.544891528643968 153 165 91
-2.601367209905451 0.3131555528347359 13.544891528643968 137 140 65
-2.584531991635003 0.313155552834736 13.54489152864397 135 134 58
-2.567696773364556 0.31315555283473584 13.544891528643968 138 134 55
-2.5508615550941096 0.31315555283473606 13.544891528643971 142 135 55
-2.915865921824487 0.3603433758646277 15.585902580905389 144 134 55
-2.8964938898420547 0.3603433758646276 15.585902580905387 147 136 57
-2.877121857859622 0.36034337586462767 15.585902580905389 150 137 58
-2.85774982587719 0.3603433758646276 15.585902580905383 148 135 57
-2.83837779389476 0.360343375864628 15.585902580905401 149 137 57
-2.8190057619123263 0.36034337586462767 15.585902580905396 149 139 55
-2.7996337299298926 0.3603433758646275 15.585902580905387 150 141 52
-2.7802616979474593 0.36034337586462756 15.585902580905381 151 144 51
-2.7235803461546917 0.355473870785376 15.375282275758025 155 147 50
-2.7044700983882364 0.35547387078537607 15.375282275758027 157 150 50
-2.6853598506217824 0.3554738707853758 15.375282275758016 160 152 54
-2.666249602855327 0.3554738707853757 15.37528227575801 161 153 56
-2.6471393550888753 0.35547387078537585 15.375282275758018 163 156 65
-2.6280291073224227 0.3554738707853761 15.375282275758021 166 158 74
-2.6446574740704327 0.36034337586462767 15.585902580905389 168 161 79
-2.6252854420880007 0.36034337586462767 15.585902580905387 170 163 82
3.2457672073587536 -0.2771922477283539 -11.377708884060938 118 115 84
3.2316256240115777 -0.2771922477283539 -11.377708884060935 128 124 88
3.2174840406644005 -0.2771922477283539 -11.377708884060933 142 138 95
3.235699451835582 -0.2799921694225798 -11.492635236425192 149 142 92
3.221415024212172 -0.27999216942257965 -11.492635236425183 144 136 79
21.167061937485865 -1.8479483181890282 -75.85139256040635 141 131 68
0.8406696029988564 -0.07372134248094522 -3.025986405335356 140 130 64
0.8369085435980116 -0.0737213424809452 -3.025986405335355 140 132 66
0.8309375439207817 -0.07352579515340953 -3.017959916196534 142 135 69
0.8271864608048198 -0.0735257951534095 -3.017959916196535 141 132 68
0.8256253653954778 -0.07372134248094517 -3.0259864053353547 143 132 69
0.8218643059946338 -0.07372134248094518 -3.0259864053353556 146 134 71
0.8181032465937883 -0.07372134248094517 -3.025986405335355 146 133 69
0.7523161237949557 -0.06810620337305995 -2.7955058683196405 145 131 66
-2.0184006890717185 0.1835710249856648 7.534906545735721 145 131 62
-2.0090354020868326 0.18357102498566477 7.534906545735718 142 128 56
-1.9996701151019474 0.18357102498566477 7.534906545735717 137 124 48
-1.9772107174057676 0.18236332087391707 7.485334792145354 130 118 39
-3.4781612873367354 0.32231656712599305 13.22989405123365 124 115 33
-3.461717585770249 0.3223165671259928 13.229894051233643 124 117 33
-3.4452738842037656 0.3223165671259928 13.22989405123364 130 126 42
-3.4288301826372836 0.3223165671259928 13.229894051233643 133 131 47
-3.4123864810708016 0.3223165671259931 13.22989405123365 141 140 58
-3.395942779504318 0.3223165671259929 13.229894051233646 158 163 82
-3.379499077937834 0.32231656712599294 13.229894051233645 168 187 107
-3.3630553763713515 0.322316567125993 13.22989405123365 171 197 121
-3.3466116748048664 0.3223165671259929 13.229894051233643 170 200 128
-3.3301679732383858 0.322316567125993 13.229894051233648 170 204 132
-3.3137242716718998 0.32231656712599266 13.22989405123364 169 205 135
-3.2972805701054155 0.3223165671259929 13.229894051233645 162 200 130
-3.2808368685389335 0.3223165671259928 13.229894051233645 151 188 118
-3.2643931669724506 0.32231656712599294 13.229894051233648 144 182 110
-3.247949465405967 0.3223165671259927 13.22989405123364 141 180 106
-3.2315057638394844 0.322316567125993 13.229894051233646 133 175 97
-3.215062062273002 0.32231656712599294 13.229894051233646 121 166 86
-3.1986183607065186 0.3223165671259928 13.229894051233648 115 163 82
-3.182174659140033 0.32231656712599277 13.229894051233645 119 168 86
-3.1657309575735515 0.322316567125993 13.229894051233648 128 177 96
-3.149287256007068 0.3223165671259929 13.229894051233646 132 181 100
-3.1697005374340037 0.3261085267392399 13.385539863601107 130 177 97
-3.153063380554973 0.32610852673923985 13.385539863601101 135 179 102
-3.136426223675942 0.32610852673923985 13.385539863601101 125 169 94
-3.1197890667969115 0.3261085267392397 13.385539863601096 120 162 90
-3.1031519099178815 0.3261085267392399 13.385539863601098 140 180 110
-3.123258976289315 0.3299907711051833 13.54489152864398 158 196 128
-3.106423758018868 0.32999077110518327 13.544891528643975 158 193 130
-3.0532404392807924 0.32610852673924 13.385539863601101 161 194 132
-3.03660328240176 0.32610852673923973 13.385539863601092 165 192 134
-3.0199661255227324 0.3261085267392399 13.385539863601103 157 178 125
-2.9684065387757514 0.32231656712599294 13.229894051233645 150 165 120
-2.951962837209269 0.3223165671259929 13.229894051233648 149 159 124
-2.935519135642784 0.32231656712599294 13.229894051233648 155 162 136
-2.9190754340763 0.3223165671259928 13.229894051233645 164 171 148
-2.9026317325098194 0.32231656712599305 13.229894051233648 171 181 154
-2.886188030943334 0.3223165671259929 13.22989405123365 168 182 148
-2.8367587623725186 0.3186117789981079 13.07782630351832 160 175 136
-2.8205040688700187 0.31861177899810783 13.077826303518318 156 174 129
-2.8042493753675184 0.3186117789981079 13.07782630351832 146 171 117
-2.7879946818650185 0.318611778998108 13.077826303518322 131 167 104
-2.7717399883625156 0.3186117789981079 13.077826303518314 127 170 100
-2.787525821544435 0.322316567125993 13.229894051233648 121 167 93
-2.77108211997795 0.3223165671259929 13.229894051233646 126 173 95
-2.7546384184114667 0.32231656712599294 13.229894051233646 140 186 106
-2.738194716844984 0.32231656712599277 13.229894051233645 130 173 92
-2.7217510152785005 0.3223165671259928 13.229894051233638 132 171 90
-2.705307313712016 0.32231656712599266 13.229894051233636 137 175 96
-2.688863612145534 0.3223165671259929 13.229894051233646 143 182 104
-2.703860144821158 0.32610852673923985 13.385539863601096 147 187 110
-2.6872229879421274 0.32610852673923985 13.385539863601098 146 190 114
-2.670585831063098 0.32610852673924 13.385539863601105 146 190 115
-2.6855433012576873 0.32999077110518327 13.544891528643973 144 188 113
-2.668708082987237 0.32999077110518293 13.544891528643964 146 186 111
-2.6518728647167915 0.3299907711051832 13.544891528643966 148 185 110
-2.6350376464463445 0.3299907711051831 13.54489152864397 154 184 110
-2.6182024281758975 0.32999077110518316 13.544891528643968 155 172 98
-2.60136720990545 0.3299907711051831 13.544891528643971 148 155 80
-2.5845319916350045 0.3299907711051833 13.544891528643975 144 145 68
-2.5676967733645557 0.32999077110518316 13.54489152864397 145 143 64
-2.550861555094108 0.3299907711051831 13.544891528643968 149 143 63
-2.9980029900448955 0.3904116165188082 16.024942090226663 150 141 62
-2.9367229716454184 0.38498923295604726 15.80237345008464 152 141 62
-2.8771218578596227 0.37971540784706015 15.585902580905392 153 140 62
-2.81913158498696 0.3745841185518297 15.375282275758028 151 138 62
-2.800021337220504 0.37458411855182955 15.37528227575802 150 139 60
-2.7809110894540514 0.3745841185518296 15.375282275758021 150 140 58
-2.761800841687598 0.3745841185518297 15.375282275758027 149 141 55
-2.742690593921144 0.37458411855182944 15.375282275758023 151 144 55
-2.72358034615469 0.37458411855182955 15.37528227575802 155 146 54
-2.704470098388237 0.3745841185518296 15.375282275758021 157 148 54
-2.6853598506217833 0.37458411855182966 15.375282275758021 159 150 56
-2.6662496028553284 0.37458411855182966 15.375282275758016 160 150 60
-2.6471393550888758 0.37458411855182955 15.375282275758016 161 153 67
-2.664029506052866 0.3797154078470601 15.58590258090539 164 156 74
-2.644657474070433 0.3797154078470602 15.58590258090539 165 158 79
-2.625285442088001 0.3797154078470601 15.585902580905394 167 160 82
3.245767207358755 -0.2913338310755297 -11.377708884060938 117 115 86
3.2316256240115777 -0.2913338310755295 -11.377708884060935 126 123 88
3.2174840406644014 -0.2913338310755294 -11.377708884060933 140 136 93
3.2033424573172264 -0.2913338310755295 -11.377708884060937 145 139 87
3.2214150242121735 -0.2942765970459895 -11.492635236425194 140 134 75
0.8746719808878447 -0.08025725373981529 -3.1343550644795966 136 128 65
0.8731816870927345 -0.0804789588606435 -3.143013503884237 134 125 58
0.8692751723559454 -0.08047895886064346 -3.143013503884235 133 126 57
0.8653686576191565 -0.0804789588606435 -3.1430135038842364 137 131 60
0.8614621428823688 -0.08047895886064353 -3.143013503884237 133 125 55
0.8575556281455787 -0.0804789588606435 -3.1430135038842355 133 123 56
0.8560137923933021 -0.08070189226468961 -3.1517199124822532 138 127 61
-2.010502096204344 0.19041426867681668 7.436411035333943 139 128 61
-2.001259231271549 0.1904142686768167 7.436411035333944 138 127 58
-1.9920163663387547 0.1904142686768167 7.436411035333944 135 124 53
-1.9958180639152092 0.1916669941286378 7.48533479214535 130 120 46
-1.9865143906604887 0.19166699412863794 7.485334792145355 125 116 39
-1.9772107174057683 0.19166699412863794 7.485334792145354 119 112 32
-3.478161287336733 0.33876026869247594 13.22989405123364 121 117 35
-3.46171758577025 0.33876026869247605 13.229894051233643 131 131 46
-3.4452738842037687 0.33876026869247633 13.229894051233652 134 137 53
-3.4288301826372827 0.3387602686924762 13.229894051233643 143 148 65
-3.3731636479550424 0.33486647250060847 13.077826303518307 166 173 92
-3.3569089544525452 0.3348664725006089 13.077826303518323 179 194 112
-3.3406542609500427 0.33486647250060875 13.077826303518316 171 198 113
-3.3243995674475424 0.33486647250060875 13.077826303518316 171 203 121
-3.3081448739450425 0.33486647250060875 13.077826303518318 166 202 124
-3.2918901804425404 0.3348664725006087 13.077826303518318 157 196 122
-3.2756354869400375 0.3348664725006086 13.07782630351831 156 196 125
-3.2972805701054164 0.33876026869247605 13.229894051233641 159 198 128
-3.2808368685389344 0.33876026869247616 13.229894051233643 154 192 123
-3.26439316697245 0.3387602686924761 13.229894051233645 145 184 112
-3.2479494654059695 0.3387602686924764 13.229894051233652 139 180 104
-3.2315057638394835 0.33876026869247616 13.229894051233643 131 175 95
-3.2150620622730006 0.33876026869247616 13.229894051233645 118 165 83
-3.1986183607065186 0.3387602686924763 13.229894051233648 107 157 75
-3.1821746591400344 0.33876026869247633 13.229894051233646 109 161 78
-3.16573095757355 0.33876026869247633 13.229894051233645 119 170 89
-3.1492872560070673 0.3387602686924762 13.229894051233645 118 167 86
-3.1328435544405853 0.3387602686924764 13.229894051233648 118 165 85
-3.153063380554975 0.3427456836182703 13.385539863601107 128 174 97
-3.136426223675942 0.34274568361827007 13.3855398636011 128 174 99
-3.119789066796913 0.3427456836182702 13.385539863601103 128 171 99
-3.10315190991788 0.3427456836182698 13.385539863601096 130 172 100
-3.086514753038854 0.34274568361827024 13.38553986360111 128 169 99
-3.0698775961598233 0.3427456836182702 13.385539863601103 136 176 109
-3.053240439280792 0.34274568361827007 13.3855398636011 145 185 117
-3.036603282401763 0.3427456836182701 13.385539863601105 153 191 124
-2.9848502403422317 0.338760268692476 13.229894051233638 156 192 129
-2.9684065387757514 0.3387602686924763 13.229894051233645 147 178 123
-2.951962837209267 0.3387602686924762 13.229894051233645 143 171 122
-2.9355191356427848 0.3387602686924762 13.229894051233648 147 173 131
-2.919075434076302 0.3387602686924763 13.229894051233645 154 180 141
-2.902631732509819 0.3387602686924764 13.22989405123365 163 189 147
-2.886188030943333 0.3387602686924761 13.229894051233641 164 192 144
-2.83675876237252 0.33486647250060875 13.07782630351832 161 189 138
-2.820504068870019 0.3348664725006087 13.077826303518316 160 190 133
-2.804249375367518 0.3348664725006086 13.077826303518313 153 188 126
-2.7879946818650163 0.3348664725006086 13.077826303518316 140 181 113
-2.771739988362518 0.3348664725006087 13.077826303518322 128 174 101
-2.787525821544435 0.33876026869247633 13.229894051233646 122 168 94
-2.771082119977951 0.3387602686924762 13.229894051233645 123 169 95
-2.7546384184114667 0.3387602686924761 13.229894051233645 132 175 99
-2.738194716844984 0.3387602686924761 13.229894051233643 122 165 89
-2.721751015278502 0.3387602686924762 13.229894051233646 123 164 88
-2.7053073137120167 0.3387602686924761 13.229894051233643 124 165 90
-2.6888636121455343 0.3387602686924762 13.229894051233646 133 176 101
-2.672419910579051 0.33876026869247633 13.229894051233646 143 187 112
-2.6559762090125676 0.33876026869247633 13.229894051233648 140 188 113
-2.6395325074460834 0.33876026869247616 13.22989405123365 138 187 111
-2.68554330125769 0.34682598937563075 13.544891528643983 137 184 107
-2.66870808298724 0.3468259893756303 13.54489152864397 138 182 105
-2.6518728647167933 0.3468259893756306 13.544891528643973 141 180 103
-2.6350376464463454 0.34682598937563053 13.544891528643973 146 178 101
-2.6182024281758975 0.3468259893756304 13.54489152864397 151 172 94
-2.60136720990545 0.34682598937563036 13.54489152864397 152 162 83
-2.584531991635004 0.3468259893756305 13.544891528643973 151 155 74
-2.5676967733645566 0.3468259893756304 13.544891528643973 151 152 69
-2.5508615550941096 0.3468259893756304 13.544891528643975 154 151 68
-2.534026336823662 0.34682598937563036 13.54489152864397 158 149 67
-2.936722971645417 0.40463032093823553 15.802373450084634 158 147 67
-2.8771218578596236 0.39908743982949274 15.585902580905396 158 145 68
-2.85774982587719 0.39908743982949246 15.585902580905385 158 145 67
-2.800021337220504 0.3936943663182832 15.375282275758018 155 144 65
-2.780911089454051 0.3936943663182831 15.37528227575802 154 144 63
-2.761800841687598 0.39369436631828314 15.375282275758021 153 145 61
-2.7426905939211434 0.39369436631828314 15.375282275758018 153 147 60
-2.7235803461546904 0.39369436631828314 15.375282275758021 156 148 60
-2.704470098388237 0.39369436631828314 15.375282275758021 158 150 61
-2.685359850621783 0.39369436631828314 15.375282275758021 160 150 62
-2.66624960285533 0.3936943663182833 15.375282275758025 160 150 64
-2.647139355088874 0.39369436631828303 15.375282275758016 162 151 68
-2.6640295060528665 0.3990874398294925 15.58590258090539 162 154 73
-2.644657474070433 0.39908743982949263 15.585902580905392 163 156 77
-2.625285442088 0.3990874398294923 15.585902580905383 165 157 81
-1.8547241184907164 0.17455737967011725 6.501547933749105 117 113 88
-1.7008555915850405 0.16077653390668692 5.988267833716283 125 121 88
-1.6934126529812643 0.160776533906687 5.988267833716282 139 134 92
-1.6859697143774874 0.16077653390668695 5.988267833716282 145 138 85
-1.678526775773711 0.16077653390668703 5.988267833716282 145 137 77
0.8746719808878439 -0.08415300672801793 -3.134355064479596 141 132 69
0.8731816870927346 -0.08438547359743238 -3.143013503884237 137 127 61
0.8692751723559451 -0.08438547359743236 -3.143013503884235 132 124 52
0.8653686576191576 -0.08438547359743243 -3.1430135038842373 132 126 50
-5.568737423632448 0.5454918114691163 20.317337292965952 127 119 46
-2.0158125804461005 0.1983606587160423 7.388122651987617 129 119 48
-2.0197449611371385 0.1996571336096113 7.436411035333947 133 123 53
-2.0105020962043434 0.19965713360961126 7.436411035333946 133 123 53
-2.0012592312715483 0.1996571336096113 7.436411035333946 131 122 51
-1.9920163663387536 0.1996571336096112 7.436411035333941 128 119 48
-1.9958180639152099 0.2009706673833587 7.485334792145355 121 113 42
-1.986514390660489 0.20097066738335875 7.485334792145355 112 107 34
-3.4544371154675497 0.3511211660031095 13.077826303518318 112 111 36
-3.4781612873367336 0.35520397025895944 13.229894051233648 129 131 55
-3.4617175857702494 0.3552039702589595 13.229894051233645 140 147 70
-3.4452738842037682 0.3552039702589595 13.229894051233648 148 157 83
-3.389418341457544 0.3511211660031093 13.077826303518313 165 177 104
-3.373163647955045 0.3511211660031095 13.07782630351832 185 202 127
-3.356908954452544 0.35112116600310955 13.077826303518318 180 203 127
-3.3406542609500427 0.35112116600310944 13.077826303518316 170 203 119
-3.3243995674475446 0.3511211660031096 13.077826303518322 164 203 117
-3.3081448739450403 0.3511211660031092 13.077826303518313 160 203 122
-3.291890180442542 0.35112116600310955 13.077826303518322 157 202 124
-3.2756354869400406 0.35112116600310955 13.07782630351832 158 203 128
-3.297280570105418 0.35520397025895956 13.229894051233646 160 203 129
-3.2808368685389335 0.3552039702589594 13.22989405123364 157 199 123
-3.264393166972453 0.35520397025895967 13.229894051233652 155 197 119
-3.24794946540597 0.3552039702589598 13.229894051233652 152 196 115
-3.2315057638394857 0.35520397025895967 13.229894051233648 142 188 105
-3.215062062273001 0.35520397025895967 13.229894051233648 124 172 89
-3.1986183607065177 0.35520397025895967 13.229894051233646 104 154 72
-3.1821746591400344 0.35520397025895944 13.229894051233646 98 149 68
-3.1657309575735524 0.35520397025895967 13.22989405123365 108 157 78
-3.1492872560070646 0.3552039702589593 13.229894051233636 107 155 76
-3.1328435544405844 0.35520397025895967 13.229894051233646 111 155 76
-3.1163998528740997 0.35520397025895944 13.22989405123364 115 160 81
-3.099956151307617 0.3552039702589595 13.229894051233645 133 182 103
-3.083512449741134 0.3552039702589596 13.229894051233646 128 176 102
-3.103151909917882 0.3593828404973002 13.385539863601092 132 178 108
-3.086514753038851 0.35938284049730024 13.3855398636011 125 168 101
-3.069877596159823 0.3593828404973003 13.385539863601103 119 164 96
-3.0532404392807924 0.3593828404973002 13.385539863601101 123 168 99
-3.001293941908718 0.3552039702589595 13.229894051233646 137 180 113
-2.984850240342236 0.3552039702589597 13.22989405123365 147 189 125
-2.968406538775753 0.3552039702589597 13.229894051233654 148 188 129
-2.9519628372092686 0.35520397025895944 13.229894051233646 150 186 132
-2.935519135642784 0.3552039702589595 13.229894051233643 152 186 134
-2.9190754340763014 0.3552039702589595 13.229894051233645 149 182 129
-2.9026317325098177 0.35520397025895967 13.229894051233646 145 180 124
-2.886188030943333 0.3552039702589594 13.229894051233641 145 181 123
-2.8697443293768505 0.35520397025895956 13.229894051233645 147 184 124
-2.853300627810367 0.35520397025895956 13.229894051233645 147 187 124
-2.8368569262438843 0.3552039702589596 13.229894051233648 139 182 114
-2.8204132246774 0.3552039702589595 13.22989405123364 134 178 106
-2.8039695231109185 0.3552039702589596 13.229894051233648 130 176 102
-2.787525821544435 0.35520397025895967 13.22989405123365 126 172 99
-2.77108211997795 0.3552039702589594 13.22989405123364 121 165 93
-2.754638418411468 0.3552039702589596 13.22989405123365 118 161 90
-2.738194716844986 0.3552039702589597 13.229894051233654 113 156 86
-2.7217510152785014 0.3552039702589596 13.229894051233646 110 154 85
-2.7053073137120176 0.3552039702589595 13.229894051233645 111 156 86
-2.6888636121455325 0.3552039702589594 13.229894051233643 123 170 99
-2.672419910579052 0.3552039702589596 13.229894051233654 138 187 114
-2.6559762090125676 0.35520397025895956 13.229894051233643 140 191 116
-2.639532507446085 0.35520397025895944 13.229894051233645 139 190 113
-2.6539486741840674 0.3593828404973003 13.385539863601101 138 186 108
-2.668708082987239 0.3636612076460777 13.544891528643966 138 184 105
-2.6518728647167937 0.36366120764607784 13.544891528643976 140 182 103
-2.6350376464463436 0.36366120764607746 13.544891528643962 143 178 98
-2.6182024281758984 0.36366120764607757 13.544891528643973 146 170 89
-2.60136720990545 0.36366120764607757 13.544891528643968 150 164 81
-2.5845319916350022 0.36366120764607757 13.544891528643968 154 161 77
-2.567696773364556 0.3636612076460776 13.544891528643973 156 158 73
-2.55086155509411 0.3636612076460776 13.544891528643973 158 156 70
-2.534026336823662 0.3636612076460777 13.544891528643975 162 155 70
-2.9780852670207043 0.4302470625671903 16.024942090226666 162 152 70
-2.917081883663229 0.424271408920424 15.802373450084634 164 151 72
-2.8577498258771885 0.4184594718119249 15.585902580905385 165 152 73
-2.8000213372205027 0.41280461408473657 15.37528227575801 161 151 71
-2.7809110894540505 0.41280461408473673 15.375282275758023 159 150 68
-2.7618008416875983 0.41280461408473695 15.375282275758028 158 150 66
-2.742690593921144 0.41280461408473695 15.375282275758021 158 152 64
-2.72358034615469 0.41280461408473673 15.375282275758021 159 152 64
-2.704470098388238 0.412804614084737 15.375282275758028 160 153 65
-2.685359850621781 0.41280461408473645 15.375282275758014 162 152 67
-2.6662496028553284 0.41280461408473673 15.375282275758018 162 152 67
-2.6471393550888767 0.41280461408473673 15.37528227575802 162 152 67
-2.664029506052868 0.4184594718119252 15.5859025809054 163 152 70
-2.6089188595559687 0.4128046140847368 15.375282275758021 162 153 74
-2.6252854420880003 0.4184594718119248 15.585902580905385 162 155 76
-1.8547241184907164 0.1826382844399319 6.501547933749106 119 112 90
-1.700855591585042 0.16821947251046365 5.988267833716283 126 119 87
-1.6934126529812645 0.16821947251046362 5.988267833716281 140 132 90
-1.6859697143774879 0.16821947251046365 5.988267833716284 146 136 84
-1.6785267757737106 0.1682194725104636 5.98826783371628 151 141 81
0.8746719808878443 -0.08804875971622063 -3.134355064479597 148 137 75
0.8731816870927346 -0.08829198833422122 -3.143013503884236 142 131 66
-1.5578099623408521 0.15822623651974294 5.6325291505252135 137 128 54
1.3052643919088949 -0.13317374907078372 -4.740712035025389 132 124 46
-3.584474663487552 0.3673758595056102 13.077826303518314 127 119 42
-2.0289878260699328 0.20889999854240585 7.436411035333944 127 118 44
-2.019744961137138 0.2088999985424058 7.436411035333945 129 120 46
-2.0105020962043434 0.2088999985424058 7.436411035333943 129 120 47
3.2230806566794414 -0.33643894502092714 -11.976535667432563 127 119 47
-2.005121737169931 0.2102743406380795 7.485334792145352 122 116 46
-1.9958180639152079 0.21027434063807943 7.48533479214535 111 107 38
-3.470691808970049 0.36737585950561 13.077826303518314 107 107 39
-3.454437115467548 0.3673758595056101 13.077826303518314 130 134 65
-3.4381824219650454 0.36737585950561 13.077826303518314 155 162 95
-3.4219277284625464 0.36737585950561025 13.07782630351832 160 174 106
-3.4056730349600466 0.3673758595056103 13.077826303518318 167 184 118
-3.389418341457545 0.36737585950561025 13.077826303518316 175 196 129
-3.3731636479550455 0.3673758595056104 13.077826303518325 185 209 142
-3.356908954452543 0.3673758595056101 13.077826303518316 180 210 140
-3.3406542609500427 0.3673758595056103 13.077826303518318 166 202 122
-3.324399567447543 0.3673758595056102 13.077826303518314 158 201 116
-3.3081448739450403 0.3673758595056101 13.077826303518314 158 202 122
-3.2918901804425396 0.3673758595056102 13.077826303518316 158 204 127
-3.27563548694004 0.36737585950561036 13.07782630351832 158 206 130
-3.2972805701054164 0.3716476718254427 13.229894051233645 159 206 130
-3.280836868538936 0.371647671825443 13.229894051233652 155 202 123
-3.26439316697245 0.3716476718254429 13.229894051233646 155 200 120
-3.247949465405967 0.37164767182544267 13.22989405123364 159 204 123
-3.231505763839485 0.37164767182544284 13.22989405123365 154 200 118
-3.215062062273002 0.37164767182544306 13.22989405123365 139 185 105
-3.1986183607065173 0.3716476718254427 13.229894051233645 123 171 93
-3.182174659140035 0.37164767182544284 13.229894051233646 110 158 82
-3.1657309575735497 0.3716476718254427 13.229894051233643 106 153 77
-3.149287256007066 0.3716476718254426 13.229894051233641 103 150 72
-3.1328435544405857 0.37164767182544306 13.229894051233652 102 146 68
-3.1163998528741015 0.37164767182544295 13.22989405123365 102 146 69
-3.0999561513076177 0.3716476718254429 13.229894051233646 109 155 80
-3.0835124497411335 0.3716476718254429 13.229894051233645 113 161 87
-3.0670687481746506 0.37164767182544284 13.229894051233643 121 168 98
-3.0506250466081677 0.37164767182544284 13.229894051233648 113 160 91
-3.034181345041685 0.3716476718254429 13.229894051233645 109 156 88
-3.0177376434752 0.37164767182544295 13.229894051233645 113 158 91
-3.001293941908717 0.37164767182544284 13.229894051233645 122 166 102
-2.9848502403422366 0.37164767182544306 13.229894051233652 133 177 116
-2.9684065387757523 0.3716476718254431 13.229894051233652 141 183 124
-2.951962837209267 0.3716476718254429 13.229894051233645 146 186 128
-2.9355191356427848 0.371647671825443 13.229894051233646 149 188 128
-2.919075434076302 0.37164767182544295 13.229894051233646 147 186 123
-2.9026317325098185 0.3716476718254429 13.229894051233648 140 179 116
-2.8861880309433334 0.3716476718254429 13.229894051233643 135 174 111
-2.8697443293768505 0.37164767182544295 13.229894051233648 133 173 110
-2.8533006278103676 0.37164767182544284 13.229894051233641 133 176 112
-2.836856926243885 0.37164767182544295 13.229894051233648 127 172 104
-2.820413224677401 0.371647671825443 13.22989405123365 121 166 94
-2.803969523110917 0.3716476718254429 13.229894051233646 126 172 98
-2.787525821544434 0.3716476718254427 13.229894051233643 124 169 97
-2.771082119977951 0.3716476718254427 13.22989405123364 119 162 92
-2.7546384184114685 0.37164767182544284 13.229894051233646 106 148 81
-2.738194716844982 0.37164767182544267 13.229894051233634 104 146 81
-2.7217510152785005 0.37164767182544284 13.229894051233645 103 148 81
-2.7053073137120185 0.371647671825443 13.229894051233646 105 152 83
-2.6888636121455347 0.3716476718254429 13.229894051233648 116 165 94
-2.672419910579051 0.37164767182544295 13.229894051233648 132 182 109
-2.6559762090125676 0.3716476718254427 13.229894051233641 142 193 117
-2.639532507446085 0.37164767182544284 13.229894051233648 145 196 118
-2.6539486741840683 0.3760199973763306 13.385539863601105 147 195 116
-2.6373115173050365 0.37601999737633035 13.385539863601098 146 191 112
-2.6518728647167937 0.38049642591652494 13.544891528643975 145 187 108
-2.635037646446346 0.3804964259165249 13.54489152864397 145 181 102
-2.618202428175898 0.3804964259165248 13.544891528643971 147 172 91
-2.6013672099054492 0.38049642591652477 13.544891528643966 152 167 83
-2.5845319916350036 0.3804964259165248 13.544891528643966 156 165 79
-2.567696773364557 0.38049642591652505 13.544891528643976 158 161 75
-2.5508615550941087 0.38049642591652477 13.544891528643968 161 159 72
-2.5340263368236626 0.38049642591652477 13.544891528643971 164 158 71
-2.978085267020706 0.45016478559138146 16.02494209022667 166 157 71
-2.9170818836632284 0.4439124969026124 15.80237345008463 168 156 74
-2.857749825877191 0.43783150379435737 15.585902580905397 169 157 75
-2.8000213372205045 0.43191486185119043 15.375282275758021 166 156 73
-2.7809110894540514 0.4319148618511903 15.375282275758028 164 157 70
-2.7618008416875965 0.4319148618511903 15.375282275758021 163 155 67
-2.742690593921144 0.43191486185119043 15.375282275758023 161 156 65
-2.7235803461546886 0.4319148618511901 15.375282275758016 161 155 64
-2.7044700983882373 0.4319148618511905 15.375282275758028 161 155 63
-2.7221456020001646 0.4378315037943575 15.58590258090539 162 155 65
-2.702773570017731 0.4378315037943572 15.58590258090539 162 154 64
-2.6834015380353 0.4378315037943575 15.585902580905392 163 154 64
-2.6640295060528665 0.4378315037943573 15.58590258090539 163 153 65
-2.608918859555969 0.4319148618511903 15.37528227575802 162 153 68
-2.625285442088002 0.43783150379435737 15.585902580905392 161 153 69
-1.8547241184907162 0.19071918920974656 6.501547933749106 119 112 90
-1.700855591585041 0.17566241111424027 5.988267833716281 127 120 87
-1.6934126529812632 0.17566241111424027 5.9882678337162805 141 134 89
-1.6859697143774874 0.17566241111424022 5.988267833716282 145 135 81
-1.6785267757737106 0.17566241111424025 5.988267833716282 149 139 78
-2.056716420868316 0.2181428634752003 7.436411035333941 138 129 56
-2.047473555935522 0.21814286347520048 7.436411035333948 135 126 48
-2.0382306910027275 0.2181428634752004 7.436411035333946 131 122 44
-2.0289878260699337 0.21814286347520045 7.436411035333949 126 117 40
-2.019744961137138 0.21814286347520032 7.436411035333945 126 117 41
-2.023729083679372 0.2195780138928003 7.485334792145352 127 118 44
-2.0144254104246504 0.2195780138928003 7.485334792145351 123 116 44
-2.0051217371699295 0.21957801389280035 7.48533479214535 116 112 43
-3.4869465024725503 0.383630553008111 13.07782630351832 113 111 45
-3.4706918089700496 0.3836305530081109 13.077826303518314 130 133 69
-3.4544371154675493 0.38363055300811105 13.07782630351832 169 176 113
-3.4381824219650463 0.3836305530081109 13.077826303518313 179 192 130
-3.421927728462548 0.38363055300811116 13.077826303518322 175 194 131
-3.4056730349600466 0.38363055300811094 13.077826303518316 174 198 135
-3.3894183414575427 0.3836305530081108 13.077826303518309 173 203 139
-3.3731636479550424 0.38363055300811083 13.077826303518313 173 205 141
-3.356908954452543 0.38363055300811094 13.077826303518313 177 210 142
